128
5.787677636	5.520863216	-2.577468644	E1
5.291804727	6.709097557	0.307434896	E2
3.864122447	7.63424051	3.067770143	E3
2.868837559	7.145708546	4.989564557	E4
1.479340453	5.68662139	6.812878187	E5
0	3.806770224	7.891304964	E6
-1.223800252	1.558864431	8.44043914	E7
4.221901505	7.998817387	-1.354789681	E8
2.695405558	8.884820317	1.088308144	E9
1.830882336	8.708839134	3.18709115	E10
0	7.96264703	5.044718001	E11
-1.479340453	5.68662139	6.812878187	E12
-2.435870762	3.254307219	7.608766206	E13
1.270447661	9.479016328	-0.947183306	E14
0	9.087440894	1.333345013	E15
0	9.076490798	3.105438474	E16
0	9.271139705	-2.211516434	E17
-1.830882336	8.708839134	3.18709115	E18
-2.868837559	7.145708546	4.989564557	E19
-3.825797111	5.121648995	5.942844877	E20
-1.270447661	9.479016328	-0.947183306	E21
-2.695405558	8.884820317	1.088308144	E22
-3.864122447	7.63424051	3.067770143	E23
-4.459387187	6.021159964	4.365321482	E24
-4.221901505	7.998817387	-1.354789681	E25
-5.291804727	6.709097557	0.307434896	E26
-5.682547954	5.453384344	2.836565436	E27
-5.546670402	4.157847823	4.627615703	E28
-4.762196763	2.697832099	6.297663028	E29
-3.695490968	0.960411022	7.627828134	E30
-1.955187826	-0.684381878	8.564858511	E31
-5.787677636	5.520863216	-2.577468644	E32
-6.399087198	4.127248875	-0.356852241	E33
-6.823959684	2.968422112	2.430080351	E34
-6.414469893	1.490027747	4.741794544	E35
-5.47913021	0.284948655	6.38332782	E36
-3.909902609	-1.519049882	7.764134929	E37
-6.550732888	3.611543152	-3.353155926	E38
-7.191620108	0.850096251	-0.882936903	E39
-7.391919265	0.032151584	2.143634599	E40
-6.905051715	-0.800953972	4.600056501	E41
-5.956055073	-2.338984312	6.00361353	E42
-6.518995129	2.417299399	-5.253637073	E43
-6.840717711	1.278489412	-3.5553823	E44
-7.304625099	-1.866238006	-0.629182006	E45
-7.312517928	-2.298574078	2.385298838	E46
-6.737313764	-3.011819533	4.178390203	E47
-5.934584124	2.22697797	-7.934360742	E48
-6.298127313	0.41663451	-6.069156425	E49
-6.78248072	-4.023512045	-0.232191092	E50
-6.558030032	-4.667036048	2.749989597	E51
-5.831241498	-4.494821698	4.955347697	E52
-4.193518856	-4.037020083	6.982920038	E53
-2.270752074	-3.414835627	8.204556551	E54
0	-2.138343513	8.791875902	E55
-6.174969392	-2.458138877	-5.637380998	E56
-6.580438308	-3.739554155	-2.991084431	E57
-6.034746843	-5.755782196	0.051843011	E58
-5.204501802	-6.437833018	2.984444293	E59
-4.116929504	-6.061561438	5.365757296	E60
-2.344914884	-5.481057427	7.057748614	E61
0	-6.676694032	6.465208258	E62
-5.333266171	-4.302240169	-5.613509789	E63
-5.404091392	-5.870302681	-2.891640039	E64
-4.645302298	-7.280552408	0.130139701	E65
-3.608293164	-7.665487704	3.129931648	E66
-1.844644417	-7.354417376	5.224001733	E67
-3.784983913	-6.401014415	-5.260040689	E68
-3.528848027	-7.603010836	-2.818037873	E69
-2.738838019	-8.607966849	0.239368223	E70
-1.404967401	-8.437486994	3.277284901	E71
0	-7.829896826	4.687622229	E72
-1.929652202	-7.497197868	-5.136777648	E73
-1.125731192	-8.455208629	-2.632832329	E74
0	-8.996686498	0.487952047	E75
1.404967401	-8.437486994	3.277284901	E76
1.844644417	-7.354417376	5.224001733	E77
2.344914884	-5.481057427	7.057748614	E78
2.270752074	-3.414835627	8.204556551	E79
1.955187826	-0.684381878	8.564858511	E80
0	-7.85891896	-4.945387489	E81
1.125731192	-8.455208629	-2.632832329	E82
2.738838019	-8.607966849	0.239368223	E83
3.608293164	-7.665487704	3.129931648	E84
4.116929504	-6.061561438	5.365757296	E85
4.193518856	-4.037020083	6.982920038	E86
3.909902609	-1.519049882	7.764134929	E87
1.929652202	-7.497197868	-5.136777648	E88
3.528848027	-7.603010836	-2.818037873	E89
4.645302298	-7.280552408	0.130139701	E90
5.204501802	-6.437833018	2.984444293	E91
5.831241498	-4.494821698	4.955347697	E92
5.956055073	-2.338984312	6.00361353	E93
3.784983913	-6.401014415	-5.260040689	E94
5.404091392	-5.870302681	-2.891640039	E95
6.034746843	-5.755782196	0.051843011	E96
6.558030032	-4.667036048	2.749989597	E97
6.737313764	-3.011819533	4.178390203	E98
5.333266171	-4.302240169	-5.613509789	E99
6.580438308	-3.739554155	-2.991084431	E100
6.78248072	-4.023512045	-0.232191092	E101
7.312517928	-2.298574078	2.385298838	E102
6.905051715	-0.800953972	4.600056501	E103
5.47913021	0.284948655	6.38332782	E104
3.695490968	0.960411022	7.627828134	E105
1.223800252	1.558864431	8.44043914	E106
6.174969392	-2.458138877	-5.637380998	E107
7.304625099	-1.866238006	-0.629182006	E108
7.391919265	0.032151584	2.143634599	E109
6.414469893	1.490027747	4.741794544	E110
4.762196763	2.697832099	6.297663028	E111
2.435870762	3.254307219	7.608766206	E112
6.298127313	0.41663451	-6.069156425	E113
6.840717711	1.278489412	-3.5553823	E114
7.191620108	0.850096251	-0.882936903	E115
6.823959684	2.968422112	2.430080351	E116
5.546670402	4.157847823	4.627615703	E117
3.825797111	5.121648995	5.942844877	E118
5.934584124	2.22697797	-7.934360742	E119
6.518995129	2.417299399	-5.253637073	E120
6.550732888	3.611543152	-3.353155926	E121
6.399087198	4.127248875	-0.356852241	E122
5.682547954	5.453384344	2.836565436	E123
4.459387187	6.021159964	4.365321482	E124
6.118458137	4.523870113	-4.409174427	E125
3.743504949	6.649204911	-6.530243068	E126
-3.743504949	6.649204911	-6.530243068	E127
-6.118458137	4.523870113	-4.409174427	E128
0	0	8.899186843	E129
